# .PCD v0.7 - Point Cloud Data file format
VERSION 0.7
FIELDS x y z rgb
SIZE 4 4 4 4
TYPE F F F U
COUNT 1 1 1 1
WIDTH 1080
HEIGHT 1
VIEWPOINT 0 0 0 1 0 0 0
POINTS 1080
DATA ascii
-0.17456271 0.36282843 0.43811584 1274707968
-0.16756852 0.36193821 0.43669847 1274707968
-0.1518213 0.36147285 0.43550128 1274707968
-0.14306602 0.36222845 0.43734491 1274707968
-0.13156596 0.36219892 0.43706954 1274707968
-0.12218866 0.36250716 0.43787163 1274707968
-0.17322952 0.36280099 0.44958907 1274707968
-0.16295476 0.36168119 0.44905451 1274707968
-0.15176919 0.36178654 0.44976327 1274707968
-0.14211215 0.36212629 0.44864517 1274707968
-0.13279322 0.36272356 0.44972473 1274707968
-0.12255781 0.36338109 0.44912115 1274707968
-0.12755395 0.3639693 0.44436064 1274707968
-0.17311664 0.36306566 0.46003729 1274707968
-0.16195986 0.36320779 0.46052894 1274707968
-0.15229213 0.36243206 0.45986906 1274707968
-0.14281438 0.36247027 0.45815361 1274707968
-0.13237657 0.36332563 0.46013007 1274707968
-0.12263919 0.36366796 0.46027654 1274707968
-0.17301148 0.36367932 0.46988249 1274707968
-0.1623304 0.364283 0.47090304 1274707968
-0.15168449 0.3632268 0.47047356 1274707968
-0.14255902 0.36326531 0.46918589 1274707968
-0.13282946 0.36357442 0.47011751 1274707968
-0.1231261 0.36384872 0.46989354 1274707968
-0.17075217 0.36438149 0.47815266 1274707968
-0.16267385 0.36484703 0.47953665 1274707968
-0.15205577 0.36378139 0.47709447 1274707968
-0.14205568 0.36376217 0.47812405 1274707968
-0.1323868 0.36405617 0.4775812 1274707968
-0.12295762 0.36340824 0.47667772 1274707968
-0.11283202 0.36222628 0.42961043 1266679807
-0.10248667 0.36149898 0.42973831 1274707968
-0.092567772 0.36179769 0.42842627 1274707968
-0.082566984 0.36188185 0.42798218 1274707968
-0.072815195 0.36211336 0.42897186 1274707968
-0.06314186 0.36130241 0.42847481 1274707968
-0.11956251 0.36267021 0.44369042 1274707968
-0.11356824 0.3617993 0.44150352 1274707968
-0.10123346 0.3619718 0.44177485 1274707968
-0.092231728 0.36219877 0.4427326 1274707968
-0.081815302 0.36212867 0.4427326 1274707968
-0.072818726 0.36158922 0.44287637 1274707968
-0.062910162 0.36035138 0.44032773 1274707968
-0.11256564 0.36218131 0.43734974 1274707968
-0.10306536 0.36219099 0.43840644 1274707968
-0.093363307 0.36246392 0.43733045 1274707968
-0.082747988 0.3620033 0.43755165 1274707968
-0.072316892 0.36186025 0.43770409 1274707968
-0.063073792 0.36080381 0.43526185 1274707968
-0.11197677 0.36300337 0.44931751 1274707968
-0.1026465 0.36251757 0.44935754 1274707968
-0.093309723 0.36299759 0.44971657 1274707968
-0.081482239 0.36208797 0.45013982 1274707968
-0.072764665 0.36219376 0.45010793 1274707968
-0.062371273 0.3611753 0.44903526 1274707968
-0.11271362 0.36305469 0.46010596 1274707968
-0.10273083 0.36236864 0.46045244 1274707968
-0.093559325 0.36305714 0.46005315 1274707968
-0.082851425 0.36207056 0.45990509 1274707968
-0.072381213 0.36243433 0.4600867 1274707968
-0.063563876 0.36227906 0.45945099 1274707968
-0.1127589 0.36318514 0.47025084 1274707968
-0.10193772 0.36258075 0.47030601 1274707968
-0.092016518 0.36265531 0.46955162 1274707968
-0.082928754 0.36215904 0.47063151 1274707968
-0.072564594 0.3622025 0.47069243 1274707968
-0.063178144 0.36244348 0.47095162 1274707968
-0.11256022 0.36298859 0.47620848 1274707968
-0.10355897 0.36314371 0.47692689 1274707968
-0.053000662 0.36102226 0.42950794 1266679807
-0.042374074 0.36069208 0.42909342 1274707968
-0.032043595 0.35946995 0.42776892 1274707968
-0.022177583 0.36010286 0.42943829 1274707968
-0.012495206 0.35992756 0.42941922 1274707968
-0.0025768185 0.36014983 0.42980224 1274707968
-0.053016912 0.36096609 0.44105127 1274707968
-0.042571992 0.36100221 0.44101933 1274707968
-0.03203205 0.36014724 0.43914545 1274707968
-0.023461668 0.36082029 0.44045529 1274707968
-0.012239559 0.36076617 0.44091293 1274707968
-0.0022923893 0.35995787 0.44001681 1274707968
-0.053173043 0.36088094 0.43574071 1274707968
-0.04332085 0.36117411 0.43693793 1274707968
-0.020238524 0.36094689 0.43669847 1274707968
-0.011570118 0.3611761 0.43765622 1274707968
-0.053570621 0.36124355 0.4505347 1274707968
-0.042485911 0.36141032 0.4490464 1274707968
-0.033235207 0.3614839 0.44978869 1274707968
-0.022720275 0.36176193 0.4497911 1274707968
-0.011997512 0.36135229 0.44916385 1274707968
-0.0015759668 0.36027309 0.44965318 1274707968
-0.052840304 0.36169332 0.46026963 1274707968
-0.042565897 0.361909 0.46002138 1274707968
-0.033112008 0.36177814 0.45972967 1274707968
-0.023233438 0.36171237 0.46027997 1274707968
-0.011970726 0.36108729 0.45960957 1274707968
-0.0017429388 0.36022815 0.45906383 1274707968
-0.03207089 0.36112982 0.47529885 1274707968
-0.023904409 0.36107486 0.47529885 1274707968
-0.011238031 0.36098963 0.47529885 1274707968
-0.0018230285 0.36071062 0.4745805 1274707968
-0.053027056 0.36199933 0.47050223 1274707968
-0.042108335 0.36235452 0.4703005 1274707968
-0.031818084 0.36154604 0.46930042 1274707968
-0.022319915 0.36124268 0.4693723 1274707968
-0.012069935 0.3612048 0.46938902 1274707968
-0.0018242445 0.3605299 0.46876174 1274707968
-0.042562276 0.36244574 0.47596905 1274707968
-0.019562798 0.36229098 0.47596905 1274707968
-0.013562934 0.36225063 0.47596905 1274707968
0.0071753138 0.36043391 0.43009755 1266679807
0.016885841 0.35948876 0.42919573 1274707968
0.026879482 0.35927251 0.42843193 1274707968
0.03641684 0.35907581 0.42879304 1274707968
0.047051962 0.35885558 0.42902747 1274707968
0.057166394 0.35894001 0.42957491 1274707968
0.0073371558 0.35971633 0.43988335 1274707968
0.017085979 0.3595086 0.43969992 1274707968
0.026998326 0.36060274 0.44207597 1274707968
0.037133083 0.35936415 0.43966794 1274707968
0.046601485 0.35946152 0.43957216 1274707968
0.057208337 0.35986528 0.4395515 1274707968
0.026927078 0.36062953 0.43669847 1274707968
0.032426953 0.36059254 0.43669847 1274707968
0.050424609 0.36018389 0.43574071 1274707968
0.052424565 0.36017042 0.43574071 1274707968
0.0076950444 0.35998672 0.45088318 1274707968
0.016754376 0.35976672 0.45011622 1274707968
0.027537042 0.3604576 0.44927797 1274707968
0.036923837 0.36011457 0.44946641 1274707968
0.047427531 0.36062828 0.45002189 1274707968
0.056676585 0.36045602 0.45069867 1274707968
0.0070892824 0.36003315 0.45977154 1274707968
0.016928496 0.36087382 0.46024185 1274707968
0.0267647 0.3612673 0.45968622 1274707968
0.036696974 0.36017632 0.45912036 1274707968
0.046351731 0.36079794 0.45909682 1274707968
0.05703631 0.3596139 0.4612779 1274707968
0.0082226507 0.36003456 0.47324926 1274707968
0.016671881 0.35989165 0.474006 1274707968
0.027025836 0.36044466 0.47434106 1274707968
0.03767366 0.36008546 0.47338331 1274707968
0.04692442 0.360167 0.47386223 1274707968
0.058133893 0.35941377 0.47160459 1274707968
0.0069959597 0.36031815 0.46800575 1274707968
0.016676143 0.36052516 0.4687258 1274707968
0.027028792 0.36088425 0.46919751 1274707968
0.037298422 0.36005101 0.46804342 1274707968
0.046675064 0.36026332 0.46809122 1274707968
0.053921673 0.35973567 0.46823505 1274707968
0.078411736 0.35817516 0.43315491 1266679807
0.082411647 0.35814825 0.43315491 1274707968
0.10040737 0.35745209 0.4312394 1274707968
0.10762721 0.35707366 0.4316864 1274707968
0.11740117 0.35647556 0.43068615 1274707968
0.066837721 0.35960114 0.42866081 1274707968
0.076416433 0.35887957 0.42888722 1274707968
0.087130465 0.3588067 0.4289951 1274707968
0.096233256 0.35861158 0.42805222 1274707968
0.10574101 0.3574793 0.42739207 1274707968
0.11640555 0.35712776 0.4253009 1274707968
0.067235328 0.35901821 0.44108734 1274707968
0.07694868 0.35871652 0.44072166 1274707968
0.086915471 0.35870194 0.44002718 1274707968
0.096772298 0.35862061 0.4390249 1274707968
0.10707583 0.35769644 0.44089741 1274707968
0.11632036 0.35685176 0.43974015 1274707968
0.066422313 0.35978872 0.43478295 1274707968
0.072422177 0.35974833 0.43478295 1274707968
0.066250995 0.35909832 0.44986877 1274707968
0.077305607 0.35892037 0.45068306 1274707968
0.086840145 0.35812181 0.45030683 1274707968
0.097166978 0.35889056 0.45073891 1274707968
0.1065944 0.35820666 0.45064828 1274707968
0.11683387 0.35709223 0.45077908 1274707968
0.066955253 0.35896474 0.45960549 1274707968
0.076587237 0.35949388 0.4606922 1274707968
0.086860456 0.35878366 0.46126172 1274707968
0.097118117 0.35906038 0.46051979 1274707968
0.10633545 0.35817686 0.46080661 1274707968
0.11696181 0.35722932 0.46062338 1274707968
0.067920834 0.35956267 0.47347909 1274707968
0.07942079 0.35951701 0.47242555 1274707968
0.086990103 0.35917884 0.47295925 1274707968
0.09695746 0.3581537 0.47175527 1274707968
0.10707744 0.35793641 0.47087198 1274707968
0.11690909 0.35765213 0.47082153 1274707968
0.067168795 0.3592633 0.46782804 1274707968
0.076260313 0.36044782 0.47023836 1274707968
0.087018676 0.35917756 0.46729162 1274707968
0.096415237 0.35863519 0.46639138 1274707968
0.12681608 0.35618076 0.43078464 1266679807
0.136103 0.35668522 0.43191957 1274707968
0.14680889 0.35752338 0.43321246 1274707968
0.15716043 0.35771719 0.43339437 1274707968
0.1675126 0.35635144 0.43178228 1274707968
0.17740071 0.35620353 0.43054506 1274707968
0.12240751 0.35739923 0.42807853 1274707968
0.13865617 0.35714611 0.42759967 1274707968
0.14740781 0.35736263 0.4276475 1274707968
0.1572976 0.35746235 0.42752507 1274707968
0.16665311 0.35659832 0.42640242 1274707968
0.17590098 0.35624856 0.42544466 1274707968
0.12680297 0.35671115 0.44049212 1274707968
0.13740568 0.35707715 0.44009396 1274707968
0.1465344 0.35759833 0.43971607 1274707968
0.15748918 0.35798344 0.44044167 1274707968
0.16690272 0.3565369 0.43941933 1274707968
0.17686129 0.35606259 0.44009575 1274707968
0.12717712 0.35743788 0.45078641 1274707968
0.13668182 0.35758615 0.45020425 1274707968
0.14679661 0.35798344 0.44929796 1274707968
0.15686776 0.35812959 0.45056987 1274707968
0.16671288 0.35690641 0.4499023 1274707968
0.17665696 0.35713446 0.45101845 1274707968
0.12740567 0.35710949 0.46548173 1274707968
0.13740529 0.35701823 0.46540192 1274707968
0.16773729 0.3567183 0.46508268 1274707968
0.17640117 0.3562766 0.46380562 1274707968
0.12678052 0.3570886 0.45974672 1274707968
0.13674437 0.35787314 0.46050614 1274707968
0.14679636 0.35794887 0.46095401 1274707968
0.15682925 0.35803598 0.4605327 1274707968
0.16706963 0.35657269 0.45955914 1274707968
0.17765541 0.35690174 0.45852548 1274707968
0.12651922 0.35747579 0.47131914 1274707968
0.13696508 0.35765025 0.47136161 1274707968
0.14752111 0.35768566 0.47132963 1274707968
0.1565561 0.35813564 0.47104368 1274707968
0.16671076 0.35773233 0.47226295 1274707968
0.17767659 0.35667008 0.47146812 1274707968
0.16141763 0.35877293 0.46830693 1274707968
0.18686479 0.35655135 0.42001078 1266679807
0.20694658 0.35616714 0.42049438 1274707968
0.18662803 0.35566351 0.43095961 1274707968
0.1970271 0.35634714 0.431898 1274707968
0.20706597 0.3558934 0.42998365 1274707968
0.21725468 0.35559842 0.43066493 1274707968
0.22611488 0.35601789 0.43126684 1274707968
0.23689872 0.35570753 0.4310959 1274707968
0.18940406 0.3566609 0.42712077 1274707968
0.19815241 0.35638639 0.42640248 1274707968
0.20339987 0.35599163 0.42520526 1274707968
0.21806881 0.35627633 0.42648223 1274707968
0.22820589 0.35680199 0.4263736 1274707968
0.23640364 0.35644034 0.42657003 1274707968
0.18751049 0.3559739 0.44101998 1274707968
0.19667324 0.35610962 0.44093969 1274707968
0.20647852 0.35623899 0.43974206 1274707968
0.21649443 0.35648984 0.44012105 1274707968
0.22730251 0.35630304 0.43999392 1274707968
0.23589976 0.35586205 0.44010895 1274707968
0.18670319 0.35653999 0.45065457 1274707968
0.19700038 0.35608757 0.45076957 1274707968
0.20795773 0.35631719 0.45073664 1274707968
0.21715271 0.35636705 0.45081899 1274707968
0.22667393 0.35610989 0.45046565 1274707968
0.23698218 0.35572284 0.45114636 1274707968
0.18240105 0.35623625 0.46380562 1274707968
0.19789699 0.35558116 0.46370992 1274707968
0.20639792 0.35569155 0.46339861 1274707968
0.21711069 0.35542789 0.46338156 1274707968
0.22624992 0.35485992 0.46219125 1274707968
0.23819681 0.35542017 0.46372905 1274707968
0.18707439 0.35721526 0.46060199 1274707968
0.19652645 0.35624799 0.45894456 1274707968
0.20726046 0.35649216 0.45875642 1274707968
0.2176446 0.35515976 0.45753202 1274707968
0.22764921 0.35581079 0.45731637 1274707968
0.23614709 0.35546657 0.45896867 1274707968
0.18694806 0.35645086 0.47094572 1274707968
0.19629914 0.35590461 0.47066373 1274707968
0.20723285 0.35592708 0.47202697 1274707968
0.21673311 0.35593235 0.47206426 1274707968
0.22677022 0.35522062 0.47054642 1274707968
0.23676229 0.35569799 0.47239992 1274707968
0.28688863 0.35404077 0.42405605 1266679807
0.24568631 0.35595471 0.43199202 1274707968
0.25659972 0.35578838 0.43267626 1274707968
0.26752591 0.35593247 0.43122745 1274707968
0.27672401 0.35437375 0.4301542 1274707968
0.28672403 0.35434631 0.42970726 1274707968
0.29713988 0.3541885 0.42999464 1274707968
0.24790435 0.35650671 0.42704889 1274707968
0.25597677 0.35662341 0.42699754 1274707968
0.26665038 0.35585359 0.42616302 1274707968
0.24709877 0.35568145 0.44045389 1274707968
0.25649101 0.35584632 0.44013855 1274707968
0.26689968 0.35574904 0.43903622 1274707968
0.27639282 0.35470143 0.441237 1274707968
0.28739351 0.35475886 0.44002295 1274707968
0.29701507 0.35421538 0.44094968 1274707968
0.24680133 0.35605904 0.45109519 1274707968
0.25719735 0.35543349 0.45063561 1274707968
0.26685545 0.3559266 0.45043957 1274707968
0.27652308 0.35548064 0.45079115 1274707968
0.28649506 0.3549968 0.45018545 1274707968
0.29661265 0.35427329 0.45093909 1274707968
0.24573058 0.35545912 0.46495509 1274707968
0.25689873 0.35563928 0.46435636 1274707968
0.26606387 0.35538575 0.4628478 1274707968
0.27990273 0.35615528 0.46572113 1274707968
0.28739819 0.35545787 0.46356615 1274707968
0.29753494 0.35451707 0.46215013 1274707968
0.24757019 0.35638765 0.45997417 1274707968
0.25611365 0.35573938 0.45933115 1274707968
0.26840153 0.35601598 0.45978266 1274707968
0.27683136 0.3561748 0.45975524 1274707968
0.2862303 0.35528111 0.45831412 1274707968
0.29439142 0.3544277 0.45681366 1274707968
0.24717902 0.35604677 0.47196841 1274707968
0.25689736 0.35543707 0.47107318 1274707968
0.26714814 0.35551584 0.47142038 1274707968
0.27640036 0.35582069 0.47104913 1274707968
0.28717932 0.35595849 0.47179806 1274707968
0.29628178 0.35464135 0.471479 1274707968
0.30738592 0.35356739 0.42293867 1266679807
0.31598094 0.35280052 0.42196819 1274707968
0.32505348 0.3536402 0.42357716 1274707968
0.35638079 0.3526392 0.42355344 1274707968
0.34726307 0.35375351 0.42010504 1274707968
0.30705521 0.35395414 0.43001592 1274707968
0.31699017 0.35416523 0.43105778 1274707968
0.32763851 0.35388759 0.43054539 1274707968
0.33624703 0.35405898 0.43118501 1274707968
0.34651536 0.3540957 0.4299227 1274707968
0.3572484 0.3541913 0.43110284 1274707968
0.33873209 0.35536861 0.42616305 1274707968
0.30620784 0.35412747 0.44121858 1274707968
0.31710801 0.35469601 0.44132414 1274707968
0.32661173 0.35403743 0.44039232 1274707968
0.33651292 0.35376993 0.44035113 1274707968
0.34666079 0.35375071 0.44087023 1274707968
0.3566784 0.35440227 0.44073579 1274707968
0.30626431 0.35407141 0.45154569 1274707968
0.31769222 0.354471 0.45121995 1274707968
0.32705778 0.35427067 0.45122638 1274707968
0.33713713 0.35364801 0.4508273 1274707968
0.34667689 0.35421187 0.45229819 1274707968
0.35761505 0.35442686 0.45088574 1274707968
0.30655545 0.35399556 0.46144328 1274707968
0.31681845 0.35412756 0.46327224 1274707968
0.3268894 0.35401836 0.46139535 1274707968
0.33719149 0.354294 0.46219659 1274707968
0.34579283 0.3544662 0.4629629 1274707968
0.35664663 0.35499194 0.46356621 1274707968
0.30939302 0.35461429 0.45777142 1274707968
0.31339192 0.35444364 0.45729259 1274707968
0.32539651 0.35508171 0.45968699 1274707968
0.33439147 0.35430235 0.45729259 1274707968
0.34939596 0.35492024 0.45968699 1274707968
0.35539326 0.35449648 0.45840997 1274707968
0.3066622 0.35409552 0.47179067 1274707968
0.31681851 0.35412928 0.47222105 1274707968
0.32713926 0.35399449 0.47045073 1274707968
0.33672455 0.35425222 0.4718622 1274707968
0.34696302 0.35428199 0.47092107 1274707968
0.3576819 0.35492146 0.47130406 1274707968
0.3633821 0.35280722 0.4216617 1266679807
0.3763876 0.35358232 0.42453498 1274707968
0.39705184 0.35315576 0.42357716 1274707968
0.4083817 0.35260063 0.42372099 1274707968
0.4173812 0.35249197 0.42269135 1274707968
0.36651194 0.35351816 0.43018615 1274707968
0.37598455 0.35313612 0.43103877 1274707968
0.38684088 0.35336512 0.43036908 1274707968
0.39621997 0.35337025 0.4306491 1274707968
0.40600893 0.35294113 0.43001866 1274707968
0.41671273 0.35222653 0.430197 1274707968
0.3663893 0.35386834 0.44091374 1274707968
0.37555 0.35295251 0.44038722 1274707968
0.38672063 0.35350037 0.44246235 1274707968
0.39716354 0.35324347 0.44048816 1274707968
0.40675855 0.35287833 0.44112939 1274707968
0.41705152 0.35304046 0.44045094 1274707968
0.41787931 0.35220772 0.4556646 1274707968
0.36663735 0.3535814 0.45170134 1274707968
0.37667218 0.35342106 0.44934273 1274707968
0.38679075 0.35401577 0.4519479 1274707968
0.39625013 0.35431597 0.45127183 1274707968
0.4072614 0.35330808 0.45170134 1274707968
0.41698468 0.3530075 0.44926614 1274707968
0.36638823 0.35371673 0.46171063 1274707968
0.37663779 0.35361207 0.46289593 1274707968
0.3863945 0.35457653 0.4649359 1274707968
0.39739424 0.35450208 0.4628478 1274707968
0.40676308 0.35355291 0.46206984 1274707968
0.41738427 0.35295016 0.46369103 1274707968
0.37705687 0.35396731 0.45713291 1274707968
0.38639724 0.35499054 0.45959115 1274707968
0.39664456 0.35455424 0.45865735 1274707968
0.41439065 0.35390782 0.45777142 1274707968
0.36667883 0.35443687 0.4718788 1274707968
0.37701389 0.3537789 0.47171983 1274707968
0.38755846 0.35417104 0.4725379 1274707968
0.39724967 0.35424474 0.47142729 1274707968
0.40638706 0.35340339 0.47181052 1274707968
0.41700602 0.35246825 0.47216308 1274707968
0.42877439 0.35144788 0.42277291 1266679807
0.43762702 0.35180497 0.42259562 1274707968
0.44713098 0.35236368 0.42293078 1274707968
0.45717546 0.35150546 0.4208189 1274707968
0.46737078 0.35078004 0.42071781 1274707968
0.47770134 0.35032964 0.4206084 1274707968
0.42723271 0.35162666 0.4300907 1274707968
0.43757656 0.35173535 0.43227452 1274707968
0.44695154 0.35223278 0.42957059 1274707968
0.45623493 0.35185587 0.43100739 1274707968
0.46687421 0.35128647 0.43065345 1274707968
0.47777218 0.35094732 0.43055052 1274707968
0.42688301 0.35273501 0.44139284 1274707968
0.43658313 0.3527205 0.43970704 1274707968
0.446666 0.3522642 0.44059926 1274707968
0.4562099 0.35167575 0.44199967 1274707968
0.46477568 0.3515155 0.43980303 1274707968
0.47554454 0.35180113 0.44227096 1274707968
0.4493731 0.35118178 0.45643097 1274707968
0.45687291 0.35113078 0.45382091 1274707968
0.46987167 0.35090008 0.45595214 1274707968
0.47770709 0.35118213 0.45358935 1274707968
0.42655155 0.35301062 0.45157766 1274707968
0.43605453 0.35342523 0.44969386 1274707968
0.446509 0.35281643 0.45137817 1274707968
0.45637852 0.35196352 0.44991761 1274707968
0.46704337 0.35165212 0.44911948 1274707968
0.47770599 0.3510215 0.44841713 1274707968
0.42688307 0.35273486 0.46110013 1274707968
0.43788183 0.35252133 0.46179458 1274707968
0.44597858 0.35201013 0.46120083 1274707968
0.45623332 0.35161582 0.46299887 1274707968
0.46723258 0.35147324 0.46227366 1274707968
0.4780398 0.35108575 0.46197036 1274707968
0.43938813 0.35345209 0.45681366 1274707968
0.4278799 0.35226345 0.47259411 1274707968
0.43709725 0.35269082 0.47360316 1274707968
0.44705009 0.35273299 0.47197941 1274707968
0.45780548 0.35171664 0.47280964 1274707968
0.46737108 0.35082445 0.47303334 1274707968
0.47737128 0.35082096 0.47266617 1274707968
0.48770413 0.35070953 0.42151824 1266679807
0.4969686 0.35035649 0.42066586 1274707968
0.5173654 0.34981707 0.42141303 1274707968
0.5380342 0.35005161 0.42161408 1274707968
0.48817089 0.35072425 0.43143171 1274707968
0.49736908 0.35042274 0.43063363 1274707968
0.50669998 0.3500407 0.43072942 1274707968
0.5171687 0.35029912 0.43066555 1274707968
0.52786773 0.35012171 0.43031433 1274707968
0.53816473 0.34964067 0.43102959 1274707968
0.48637733 0.35167998 0.44037125 1274707968
0.4958716 0.35080206 0.44113776 1274707968
0.5063653 0.34983748 0.44105807 1274707968
0.51653379 0.35007247 0.44148904 1274707968
0.52597207 0.35077855 0.44219768 1274707968
0.53497142 0.35064104 0.44055021 1274707968
0.48737222 0.3509261 0.45643097 1274707968
0.49687558 0.35138863 0.45470679 1274707968
0.50796711 0.35009697 0.45204422 1274707968
0.51811522 0.34978473 0.45331824 1274707968
0.52611578 0.34982657 0.45276749 1274707968
0.53437054 0.35051367 0.45437166 1274707968
0.48712999 0.35207585 0.44982171 1274707968
0.49712878 0.35186481 0.44934288 1274707968
0.51336712 0.35007891 0.44723597 1274707968
0.53787559 0.35125554 0.44996554 1274707968
0.48670164 0.35034102 0.46200243 1274707968
0.49637237 0.35091466 0.46268076 1274707968
0.5051775 0.35165027 0.46202451 1274707968
0.51557136 0.3506991 0.46187147 1274707968
0.52637154 0.35068899 0.463471 1274707968
0.53620332 0.35042307 0.46222582 1274707968
0.48662129 0.35079044 0.47161251 1274707968
0.49676985 0.35054052 0.47344205 1274707968
0.50697887 0.35185081 0.47177514 1274707968
0.51587754 0.35162324 0.47156441 1274707968
0.52557236 0.3508254 0.47225428 1274707968
0.53797102 0.35056984 0.47376767 1274707968
0.55620015 0.34988147 0.42145446 1266679807
0.56736028 0.34888029 0.42068833 1274707968
0.57669425 0.34894541 0.42169407 1274707968
0.5873602 0.34880951 0.42032126 1274707968
0.59685653 0.34821913 0.42204538 1274707968
0.54661357 0.34944463 0.42934865 1274707968
0.55686873 0.35016653 0.43285254 1274707968
0.56536847 0.35010898 0.43111253 1274707968
0.57653397 0.34989011 0.43063363 1274707968
0.58703238 0.34961227 0.43226197 1274707968
0.59586263 0.34913757 0.4311685 1274707968
0.54570091 0.35003585 0.44144112 1274707968
0.55756736 0.34997222 0.44300234 1274707968
0.56820017 0.34985235 0.44075462 1274707968
0.57736439 0.34945592 0.44311735 1274707968
0.58616483 0.34949183 0.43995643 1274707968
0.59636724 0.34982616 0.44338539 1274707968
0.55137724 0.35145321 0.45614344 1274707968
0.55886948 0.35027695 0.45413223 1274707968
0.56735986 0.34881654 0.45397928 1274707968
0.5761075 0.34843671 0.45360577 1274707968
0.58596146 0.34899753 0.45221677 1274707968
0.59686011 0.34875169 0.45164213 1274707968
0.54737413 0.35100022 0.45106706 1274707968
0.55336815 0.3500973 0.44819373 1274707968
0.56986773 0.34998626 0.44819373 1274707968
0.5913673 0.34984159 0.44819373 1274707968
0.54697216 0.35071746 0.46054959 1274707968
0.55737311 0.35081556 0.46284837 1274707968
0.56696439 0.34949148 0.46317422 1274707968
0.57785296 0.34775627 0.46268126 1274707968
0.58685827 0.34851021 0.46452495 1274707968
0.59736538 0.34953558 0.4612202 1274707968
0.54737324 0.35087028 0.47219676 1274707968
0.55597121 0.35054433 0.47269487 1274707968
0.56536686 0.34986791 0.4720436 1274707968
0.57661158 0.34903577 0.47300166 1274707968
0.58735615 0.34819755 0.47479773 1274707968
0.59696019 0.34875506 0.47252274 1274707968
0.54803562 0.35023513 0.47983393 1274707968
0.60752475 0.34841835 0.42004988 1266679807
0.6190266 0.34866056 0.42169407 1274707968
0.62560195 0.34745061 0.42012981 1274707968
0.63760573 0.34796873 0.42125517 1274707968
0.64602494 0.34831893 0.42000195 1274707968
0.65718764 0.34768528 0.4210397 1274707968
0.60661072 0.348802 0.43203062 1274707968
0.61596018 0.34869564 0.43032086 1274707968
0.62735856 0.34842294 0.4321025 1274707968
0.63560617 0.34803182 0.4301151 1274707968
0.64710355 0.34761932 0.4307377 1274707968
0.65635055 0.34713438 0.43251777 1274707968
0.60935658 0.34818769 0.44656575 1274707968
0.63035607 0.34804639 0.44656575 1274707968
0.64635575 0.34793875 0.44656575 1274707968
0.65335268 0.34746036 0.4451291 1274707968
0.60536426 0.34934366 0.44058868 1274707968
0.61736125 0.3488608 0.44133586 1274707968
0.62635916 0.34851944 0.44225544 1274707968
0.63685691 0.34814543 0.44182447 1274707968
0.64635754 0.34820095 0.44048351 1274707968
0.65835869 0.34833586 0.44120184 1274707968
0.60616142 0.34891912 0.45240831 1274707968
0.616552 0.3474893 0.45344308 1274707968
0.62635523 0.34792104 0.45162308 1274707968
0.63610148 0.3473385 0.45303121 1274707968
0.6469515 0.34730381 0.45281091 1274707968
0.65760005 0.34705007 0.45255229 1274707968
0.60795969 0.34866002 0.46271464 1274707968
0.61685514 0.34794894 0.46332774 1274707968
0.6259523 0.34750462 0.46344274 1274707968
0.63701493 0.34685552 0.46361533 1274707968
0.64594704 0.3466419 0.46240842 1274707968
0.65784603 0.34645209 0.46447736 1274707968
0.64934927 0.34696692 0.47817418 1274707968
0.65434337 0.34607068 0.47530085 1274707968
0.6066975 0.3493281 0.47233105 1274707968
0.61715835 0.34842762 0.47258022 1274707968
0.62735909 0.34850296 0.47410318 1274707968
0.63602442 0.34826884 0.47293788 1274707968
0.6463511 0.3472493 0.47209194 1274707968
0.6063596 0.34864527 0.47932333 1274707968
0.61336488 0.34941214 0.47855687 1274707968
0.63435799 0.34831309 0.4788444 1274707968
0.66868573 0.34736863 0.42198163 1266679807
0.67635083 0.34710917 0.42012987 1274707968
0.68734628 0.34639698 0.42206162 1274707968
0.71634835 0.34660107 0.42281184 1274707968
0.66615283 0.34743863 0.43143219 1274707968
0.67835027 0.34701809 0.43146411 1274707968
0.68700892 0.34581035 0.43111315 1274707968
0.6963467 0.34641847 0.43334797 1274707968
0.70534927 0.34677231 0.43009132 1274707968
0.71668249 0.34672844 0.43251777 1274707968
0.67435318 0.3474628 0.44560793 1274707968
0.68885058 0.34703013 0.44623062 1274707968
0.6953488 0.34674647 0.44369242 1274707968
0.70734698 0.34642678 0.44637439 1274707968
0.71734834 0.34659845 0.44369242 1274707968
0.66685843 0.34827867 0.44120184 1274707968
0.6756869 0.3475166 0.44002065 1274707968
0.68568242 0.34681082 0.44021234 1274707968
0.70035321 0.34738305 0.44244713 1274707968
0.70685142 0.34709936 0.43990895 1274707968
0.71435159 0.34709647 0.4383285 1274707968
0.66685241 0.34737054 0.45034924 1274707968
0.67685413 0.3475908 0.45130706 1274707968
0.68602365 0.34799245 0.45343012 1274707968
0.69710028 0.34695187 0.45224097 1274707968
0.70668471 0.34708735 0.45435616 1274707968
0.71867996 0.34633571 0.45212135 1274707968
0.6670984 0.34677255 0.46227431 1274707968
0.67835474 0.34767839 0.46119651 1274707968
0.6886875 0.34756148 0.46364701 1274707968
0.69668949 0.3478269 0.46355116 1274707968
0.70634884 0.34670824 0.46351942 1274707968
0.71510047 0.34692848 0.46213055 1274707968
0.66784143 0.34574094 0.47798288 1274707968
0.67634672 0.34649771 0.47721642 1274707968
0.70034617 0.34633625 0.47721642 1274707968
0.71833932 0.34525737 0.47750396 1274707968
0.66034579 0.34641302 0.4730978 1274707968
0.66834688 0.34655052 0.47199628 1274707968
0.67884958 0.34691119 0.47343293 1274707968
0.68635178 0.34721959 0.47202006 1274707968
0.69634753 0.34655347 0.47089475 1274707968
0.70634967 0.34683785 0.47322541 1274707968
0.71684998 0.34684685 0.4723314 1274707968
0.72759521 0.34609413 0.42137516 1266679807
0.74774832 0.34648538 0.42173901 1274707968
0.75834399 0.3458153 0.42113569 1274707968
0.76801044 0.34574252 0.42226917 1274707968
0.77133167 0.34393486 0.43603024 1274707968
0.72434914 0.3467086 0.43146423 1274707968
0.73759723 0.34636399 0.43119285 1274707968
0.74701244 0.34610927 0.43229437 1274707968
0.75784546 0.34603637 0.43229437 1274707968
0.76534301 0.34565082 0.43291703 1274707968
0.77667421 0.34530288 0.4314324 1274707968
0.72634327 0.34582007 0.44651815 1274707968
0.73684466 0.34598836 0.44383618 1274707968
0.75034696 0.34628123 0.44685328 1274707968
0.75684422 0.34585378 0.44383618 1274707968
0.76667178 0.34495708 0.44164932 1274707968
0.77533346 0.34419653 0.4422082 1274707968
0.72634876 0.34663305 0.44053155 1274707968
0.73435116 0.34696192 0.4383285 1274707968
0.7473492 0.34663552 0.44101048 1274707968
0.75334239 0.3455888 0.43765828 1274707968
0.72834814 0.34652647 0.45413274 1274707968
0.73734659 0.34627357 0.45001414 1274707968
0.74501586 0.34663773 0.45371765 1274707968
0.75668114 0.34639928 0.4520255 1274707968
0.76659417 0.34581402 0.45348626 1274707968
0.77833921 0.34503993 0.45030168 1274707968
0.7253508 0.34693137 0.46236998 1274707968
0.73484778 0.34646046 0.46275315 1274707968
0.74634999 0.34674248 0.4639504 1274707968
0.75701678 0.34671834 0.46237004 1274707968
0.76684624 0.34612569 0.46409416 1274707968
0.77667671 0.34565994 0.46160391 1274707968
0.72534561 0.34616804 0.47721642 1274707968
0.74634326 0.34573922 0.47625867 1274707968
0.7723465 0.34613931 0.47817418 1274707968
0.72701412 0.346443 0.471214 1274707968
0.7363441 0.34590164 0.4730978 1274707968
0.7468487 0.3465488 0.47027209 1274707968
0.75734943 0.34662223 0.472491 1274707968
0.76884788 0.3463532 0.47185251 1274707968
0.77801412 0.34625977 0.47290611 1274707968
0.78534049 0.34520286 0.42230916 1266679807
0.79684556 0.34591568 0.42233291 1274707968
0.80434215 0.34538636 0.42247668 1274707968
0.81583929 0.34492576 0.42206967 1274707968
0.82633489 0.34423301 0.42434466 1274707968
0.83233088 0.34361756 0.42242908 1274707968
0.83233029 0.34352443 0.43603024 1274707968
0.78633839 0.34488687 0.43258184 1274707968
0.79683876 0.34491187 0.43203112 1274707968
0.80833685 0.34459507 0.43210301 1274707968
0.81783861 0.34481871 0.43306082 1274707968
0.82633936 0.34490526 0.43353966 1274707968
0.78708744 0.34474009 0.4425433 1274707968
0.79833388 0.34418553 0.44268706 1274707968
0.80766481 0.34378761 0.44330972 1274707968
0.81833124 0.34371585 0.44330972 1274707968
0.82800072 0.34409761 0.44247946 1274707968
0.83632571 0.34282836 0.44249573 1274707968
0.81334293 0.3454726 0.43861604 1274707968
0.78584421 0.34575689 0.45633578 1274707968
0.79583949 0.34501836 0.45236099 1274707968
0.80566913 0.34444159 0.45355836 1274707968
0.81632966 0.34349141 0.45121184 1274707968
0.82633239 0.34385541 0.45264852 1274707968
0.83482993 0.34346309 0.45327112 1274707968
0.78734165 0.34536514 0.46375903 1274707968
0.79758883 0.34491295 0.46335199 1274707968
0.807836 0.34446079 0.46294504 1274707968
0.81633353 0.34406847 0.46356767 1274707968
0.82533622 0.34443888 0.46326432 1274707968
0.83683145 0.3436906 0.46102953 1274707968
0.78883773 0.34478304 0.47750396 1274707968
0.79533178 0.34387669 0.47463062 1274707968
0.80600029 0.34412417 0.47453478 1274707968
0.81583327 0.3440263 0.47558838 1274707968
0.82799917 0.34388033 0.47421554 1274707968
0.83733022 0.34349895 0.47779149 1274707968
0.78884226 0.34545222 0.47103852 1274707968
0.81233466 0.34424016 0.46926671 1274707968
0.83633602 0.34436622 0.47022447 1274707968
-0.7824896 0.37574071 0.38890105 1266679807
-0.79151976 0.37130073 0.39477658 1275297792
-0.78251469 0.37200692 0.39733064 1275297792
-0.78550309 0.37375021 0.39263695 1275297792
-0.82868379 0.34703431 0.41744992 1275297792
-0.82671607 0.34223208 0.41888762 1275297792
-0.82461524 0.35720751 0.41490969 1275297792
-0.82156664 0.36441803 0.41117278 1275297792
-0.81302881 0.37001112 0.40738824 1275297792
-0.80284929 0.37188995 0.4057596 1275297792
-0.79325867 0.37294284 0.40542409 1275297792
-0.78300697 0.37316141 0.40638188 1275297792
-0.82213366 0.36509368 0.41813052 1275297792
-0.81751841 0.37157625 0.41945657 1275297792
-0.81051058 0.37272584 0.41648707 1275297792
-0.8030107 0.37267536 0.41648707 1275297792
-0.79184335 0.37274399 0.41696599 1275297792
-0.78175002 0.37418416 0.41416404 1275297792
-0.73449969 0.37407222 0.36529091 1266679807
-0.72450221 0.3736698 0.36591354 1275297792
-0.73149979 0.374051 0.36007077 1275297792
-0.72299802 0.37428132 0.36102852 1275297792
-0.75949401 0.37500885 0.37654519 1275297792
-0.75200224 0.37376067 0.37429452 1275297792
-0.74175251 0.3736912 0.37168446 1275297792
-0.73250782 0.37286308 0.37348053 1275297792
-0.72351146 0.37229511 0.37457252 1275297792
-0.73051655 0.37155983 0.39005119 1275297792
-0.72252315 0.37054825 0.39033872 1275297792
-0.77283388 0.37407872 0.38590014 1275297792
-0.76100039 0.37406272 0.38466299 1275297792
-0.75149715 0.37450957 0.38433564 1275297792
-0.74216563 0.37422338 0.38475069 1275297792
-0.7345084 0.37278342 0.38708171 1275297792
-0.72151417 0.37188128 0.38436797 1275297792
-0.7747578 0.37300819 0.39649233 1275297792
-0.75250185 0.37381673 0.39881489 1275297792
-0.7435109 0.37244645 0.39503169 1275297792
-0.73285049 0.37148106 0.39669213 1275297792
-0.72218269 0.37160096 0.39733064 1275297792
-0.76950532 0.37335503 0.3916792 1275297792
-0.76299876 0.37431765 0.39503139 1275297792
-0.75350124 0.37391761 0.39043388 1275297792
-0.77017069 0.37355325 0.402758 1275297792
-0.76184028 0.37308276 0.40601471 1275297792
-0.75150418 0.37347594 0.40465769 1275297792
-0.74051243 0.37220523 0.4076272 1275297792
-0.73301035 0.37248987 0.40700454 1275297792
-0.72384232 0.37266782 0.40780267 1275297792
-0.77083564 0.37381557 0.41520971 1275297792
-0.76099813 0.37440443 0.41797128 1275297792
-0.75350118 0.37392238 0.41479462 1275297792
-0.74350333 0.37356788 0.41557688 1275297792
-0.7328369 0.37349644 0.41731691 1275297792
-0.72300702 0.37295106 0.41572064 1275297792
-0.71325123 0.37378547 0.36481202 1266679807
-0.70549524 0.37464347 0.3661049 1275297792
-0.69284558 0.37206772 0.36476442 1275297792
-0.68418556 0.37105164 0.36505195 1275297792
-0.67285311 0.37087953 0.36473271 1275297792
-0.66377437 0.37017217 0.36605781 1275297792
-0.70249534 0.37462229 0.36088473 1275297792
-0.71211064 0.37237149 0.37369132 1275297792
-0.70251459 0.37175158 0.3747977 1275297792
-0.69251859 0.37113354 0.37470207 1275297792
-0.68191898 0.37103844 0.37549224 1275297792
-0.6735183 0.37110949 0.37475795 1275297792
-0.66352773 0.36966935 0.37482202 1275297792
-0.71251792 0.37129495 0.38957229 1275297792
-0.69952303 0.37048864 0.38717785 1275297792
-0.69052947 0.36951792 0.385885 1275297792
-0.68302441 0.37023386 0.38669899 1275297792
-0.67253047 0.36930168 0.38904583 1275297792
-0.66402805 0.36962715 0.38684276 1275297792
-0.71102089 0.37085256 0.3829155 1275297792
-0.70152009 0.3709324 0.38339439 1275297792
-0.69451803 0.37122041 0.38277173 1275297792
-0.68152022 0.37084541 0.38181394 1275297792
-0.67402297 0.37041226 0.38401705 1275297792
-0.66502482 0.37011173 0.38147885 1275297792
-0.71351504 0.37173399 0.39622909 1275297792
-0.70326298 0.37200013 0.39560646 1275297792
-0.69102037 0.3708638 0.39383468 1275297792
-0.68402267 0.3705059 0.39627722 1275297792
-0.67601812 0.37114659 0.39685178 1275297792
-0.66392702 0.36979112 0.39608577 1275297792
-0.71351141 0.37227833 0.40441844 1275297792
-0.70076334 0.37193727 0.40501711 1275297792
-0.69085336 0.37091297 0.40617466 1275297792
-0.68151462 0.37168035 0.40662149 1275297792
-0.6741823 0.37150344 0.40735582 1275297792
-0.66418105 0.37165958 0.40694073 1275297792
-0.71375465 0.37327203 0.41612765 1275297792
-0.70183825 0.37319201 0.4169977 1275297792
-0.69017702 0.37234747 0.41792375 1275297792
-0.68351305 0.37191892 0.41490665 1275297792
-0.67417991 0.37185642 0.41664669 1275297792
-0.66402143 0.3706148 0.41708592 1275297792
-0.65352803 0.36960003 0.3643817 1266679807
-0.64333397 0.36866963 0.36568451 1275297792
-0.6318177 0.36893412 0.36513442 1275297792
-0.62193322 0.36871719 0.36562702 1275297792
-0.61128896 0.36783153 0.36639345 1275297792
-0.60120791 0.36745998 0.36422247 1275297792
-0.64204597 0.36689138 0.37822282 1275297792
-0.65278524 0.36851931 0.37384045 1275297792
-0.64187366 0.36773562 0.37466276 1275297792
-0.63203669 0.36823642 0.37597165 1275297792
-0.62193435 0.36854672 0.37549269 1275297792
-0.61320031 0.36862874 0.37712091 1275297792
-0.60253894 0.36780307 0.37484145 1275297792
-0.65320003 0.36880407 0.38724199 1275297792
-0.64253372 0.36871609 0.38602874 1275297792
-0.63186419 0.36910734 0.38641179 1275297792
-0.62119603 0.36929137 0.38842317 1275297792
-0.61186421 0.36903688 0.38778466 1275297792
-0.60278666 0.36813733 0.38586122 1275297792
-0.6575253 0.37001371 0.38305926 1275297792
-0.62752795 0.36952433 0.38210148 1275297792
-0.62452412 0.37007919 0.38401702 1275297792
-0.61152828 0.36941665 0.38210148 1275297792
-0.65185785 0.37010586 0.39624533 1275297792
-0.64232492 0.37002888 0.39597073 1275297792
-0.63186306 0.36926869 0.39506412 1275297792
-0.62233508 0.36843887 0.39807826 1275297792
-0.61253774 0.36801311 0.394793 1275297792
-0.60353607 0.36823234 0.39688417 1275297792
-0.65327442 0.37013346 0.40702885 1275297792
-0.6429314 0.36905816 0.40733069 1275297792
-0.63170362 0.36820012 0.40599948 1275297792
-0.6218695 0.36827806 0.40821847 1275297792
-0.61328739 0.36806828 0.40626293 1275297792
-0.60293853 0.36785033 0.40698612 1275297792
-0.64503068 0.36917034 0.41878635 1275297792
-0.62353021 0.36916941 0.41926518 1275297792
-0.61186892 0.36834037 0.41792437 1275297792
-0.60153854 0.36785579 0.41770104 1275297792
-0.6535266 0.36980155 0.41548172 1275297792
-0.63753217 0.36892748 0.41466773 1275297792
-0.63302642 0.3697598 0.417541 1275297792
-0.62053448 0.36852559 0.41370997 1275297792
-0.61653262 0.36878619 0.41466773 1275297792
-0.60453486 0.36841792 0.41370997 1275297792
-0.5931462 0.36668447 0.36576146 1266679807
-0.58154851 0.36629984 0.3654359 1275297792
-0.5719496 0.36612025 0.36505276 1275297792
-0.5631482 0.36629105 0.36581901 1275297792
-0.55221325 0.36650798 0.36562732 1275297792
-0.54179519 0.36666939 0.36581889 1275297792
-0.59853888 0.36779639 0.38047346 1275297792
-0.59054714 0.36654487 0.37822282 1275297792
-0.58404309 0.36712378 0.37855792 1275297792
-0.57154334 0.36703965 0.37855792 1275297792
-0.55254745 0.36636919 0.37906888 1275297792
-0.54154927 0.36607176 0.379484 1275297792
-0.5915429 0.36717322 0.37333778 1275297792
-0.58121312 0.36662483 0.37348154 1275297792
-0.56904024 0.36750069 0.37319401 1275297792
-0.56120878 0.36719286 0.37466276 1275297792
-0.55354077 0.3673647 0.37424764 1275297792
-0.54329354 0.36692044 0.37357724 1275297792
-0.59153569 0.3682535 0.38736975 1275297792
-0.58253634 0.36812055 0.38452023 1275297792
-0.5723713 0.36784509 0.38701856 1275297792
-0.56254005 0.3675071 0.38466397 1275297792
-0.55274695 0.36643577 0.38600993 1275297792
-0.54172087 0.36532438 0.38858348 1275297792
-0.59253472 0.36839795 0.39768234 1275297792
-0.58203632 0.36811921 0.39496052 1275297792
-0.57253838 0.3677845 0.39782611 1275297792
-0.56229055 0.36743557 0.39486486 1275297792
-0.55274695 0.36643776 0.39645022 1275297792
-0.54238176 0.36619279 0.39841703 1275297792
-0.54854637 0.36650833 0.41208193 1275297792
-0.54055434 0.36530441 0.40825087 1275297792
-0.59193951 0.36768073 0.40805888 1275297792
-0.5823409 0.36744323 0.40539619 1275297792
-0.57329005 0.36753592 0.407125 1275297792
-0.56378591 0.36811841 0.40666994 1275297792
-0.55504334 0.36698234 0.40829843 1275297792
-0.54421747 0.3658393 0.4053134 1275297792
-0.59328866 0.36781627 0.41804418 1275297792
-0.58173817 0.36784378 0.41717738 1275297792
-0.5725314 0.36882627 0.41926518 1275297792
-0.56353617 0.3680793 0.41929728 1275297792
-0.55374551 0.36665955 0.41872922 1275297792
-0.54187989 0.36646453 0.41730213 1275297792
-0.57103431 0.36838385 0.41260839 1275297792
-0.56553376 0.36844304 0.41466773 1275297792
-0.53205359 0.36538249 0.36522844 1266679807
-0.5225538 0.36532557 0.36599702 1275297792
-0.51169586 0.36540291 0.36550432 1275297792
-0.50155073 0.36570442 0.36698437 1275297792
-0.49155235 0.36542955 0.36687267 1275297792
-0.48172069 0.36515555 0.3650209 1275297792
-0.53095388 0.3653487 0.37731308 1275297792
-0.5217517 0.36563185 0.37846237 1275297792
-0.51229966 0.3658984 0.37695372 1275297792
-0.50255167 0.36556959 0.37781581 1275297792
-0.49335441 0.36513379 0.37604871 1275297792
-0.4843896 0.36482486 0.37835073 1275297792
-0.53454548 0.36659837 0.37443933 1275297792
-0.52354962 0.36594927 0.37252378 1275297792
-0.51121593 0.36596215 0.37284306 1275297792
-0.49755213 0.3654868 0.371566 1275297792
-0.4835515 0.36553639 0.37204489 1275297792
-0.53205091 0.36578581 0.3868593 1275297792
-0.52104557 0.36654198 0.38730609 1275297792
-0.51197493 0.36639416 0.38668585 1275297792
-0.50134742 0.36620489 0.38639301 1275297792
-0.49304998 0.36579469 0.38660383 1275297792
-0.48326892 0.36506554 0.38836908 1275297792
-0.53088176 0.36614713 0.39736339 1275297792
-0.52314919 0.366009 0.39777207 1275297792
-0.51217461 0.36591351 0.39743924 1275297792
-0.50154752 0.36618903 0.39642146 1275297792
-0.49369615 0.36530182 0.39786527 1275297792
-0.4825598 0.36428946 0.39747545 1275297792
-0.53555053 0.36584583 0.41016641 1275297792
-0.51754713 0.36629975 0.41208193 1275297792
-0.51355368 0.36531508 0.41236946 1275297792
-0.50321794 0.36562824 0.41016638 1275297792
-0.49355653 0.3648206 0.40856218 1275297792
-0.48180857 0.36447832 0.40942428 1275297792
-0.53229988 0.3659429 0.40621537 1275297792
-0.52254605 0.36647615 0.40734065 1275297792
-0.51230079 0.36573645 0.40597591 1275297792
-0.50222313 0.3648541 0.40413225 1275297792
-0.4895587 0.36448133 0.40317446 1275297792
-0.48405594 0.36487564 0.40461111 1275297792
-0.53174138 0.36720079 0.41685176 1275297792
-0.5225423 0.36702427 0.41855669 1275297792
-0.51154679 0.36632419 0.41693491 1275297792
-0.50321853 0.36554995 0.41802055 1275297792
-0.49255118 0.36561522 0.41662216 1275297792
-0.48388228 0.36591497 0.41909006 1275297792
-0.46956307 0.3637656 0.36993799 1266679807
-0.44306272 0.36373109 0.37041691 1275297792
-0.42956591 0.36320895 0.36898023 1275297792
-0.42323577 0.36271915 0.36807036 1275297792
-0.47272053 0.36514288 0.36518052 1275297792
-0.46227092 0.36470097 0.36576447 1275297792
-0.4531301 0.36436579 0.36584657 1275297792
-0.44293132 0.36468697 0.36490923 1275297792
-0.43306211 0.36378273 0.36646581 1275297792
-0.42007032 0.36252138 0.36342499 1275297792
-0.47243455 0.36430106 0.37643918 1275297792
-0.46272397 0.36459875 0.37576461 1275297792
-0.45312768 0.36472362 0.37647837 1275297792
-0.44230846 0.36436185 0.37688211 1275297792
-0.43206605 0.36319509 0.37525403 1275297792
-0.42223039 0.3635124 0.37711108 1275297792
-0.47268146 0.36475986 0.38752589 1275297792
-0.46312562 0.36506659 0.38683656 1275297792
-0.45288554 0.3653276 0.38672096 1275297792
-0.44221988 0.36513376 0.38843971 1275297792
-0.43189573 0.36373866 0.38518339 1275297792
-0.42241901 0.36379382 0.38698727 1275297792
-0.47306103 0.36408177 0.39699653 1275297792
-0.46305549 0.36487657 0.39725977 1275297792
-0.4529804 0.36538365 0.39805672 1275297792
-0.44298258 0.36502886 0.39709896 1275297792
-0.43305933 0.36419559 0.39609849 1275297792
-0.42356253 0.36368898 0.39766705 1275297792
-0.47280246 0.36535171 0.40992692 1275297792
-0.45855427 0.36504018 0.40920863 1275297792
-0.4525505 0.36557487 0.41112414 1275297792
-0.44322085 0.36500114 0.41058153 1275297792
-0.43255764 0.36445016 0.40898523 1275297792
-0.42255765 0.36441487 0.4093236 1275297792
-0.47022328 0.36473465 0.40445152 1275297792
-0.46180081 0.36556423 0.40566459 1275297792
-0.45255375 0.36509499 0.40604779 1275297792
-0.44380525 0.36484423 0.40453923 1275297792
-0.43655604 0.36469978 0.40509 1275297792
-0.42305928 0.36417767 0.40365335 1275297792
-0.4716945 0.36547229 0.41730899 1275297792
-0.46212107 0.36573619 0.41691211 1275297792
-0.45205092 0.36550909 0.41845158 1275297792
-0.44212604 0.3649314 0.41815746 1275297792
-0.43322471 0.36439255 0.41805267 1275297792
-0.42305684 0.36453962 0.41790092 1275297792
-0.41356242 0.36367634 0.37089577 1266679807
-0.39956272 0.36358216 0.37089577 1275297792
-0.38656303 0.36349469 0.37089577 1275297792
-0.37231576 0.3630394 0.36969855 1275297792
-0.36206648 0.36289856 0.36945915 1275297792
-0.41255903 0.36417943 0.36563826 1275297792
-0.4032225 0.36461699 0.36653218 1275297792
-0.39325684 0.3644295 0.36551264 1275297792
-0.38211584 0.36388955 0.36612785 1275297792
-0.37256244 0.36353329 0.36438251 1275297792
-0.3619009 0.36273676 0.3642869 1275297792
-0.41156146 0.36381298 0.37641919 1275297792
-0.40198764 0.36413336 0.3771489 1275297792
-0.39322624 0.36403024 0.37678102 1275297792
-0.38246065 0.36383218 0.37663305 1275297792
-0.37241974 0.36351001 0.37623221 1275297792
-0.36367556 0.36320347 0.37662148 1275297792
-0.41275728 0.36444044 0.3873702 1275297792
-0.40255684 0.36446756 0.38719237 1275297792
-0.39230761 0.36431473 0.38697514 1275297792
-0.38122422 0.36429214 0.38758311 1275297792
-0.37239268 0.36399299 0.3862049 1275297792
-0.36289287 0.36393461 0.38718936 1275297792
-0.41355664 0.36453164 0.39765492 1275297792
-0.40277627 0.36488605 0.39719319 1275297792
-0.39255455 0.36477169 0.39737257 1275297792
-0.38295704 0.36436629 0.39683357 1275297792
-0.37280402 0.36478415 0.39723575 1275297792
-0.36177889 0.36435482 0.39750186 1275297792
-0.41255274 0.36511406 0.41048568 1275297792
-0.40288714 0.36492145 0.41122001 1275297792
-0.39322543 0.36415377 0.41003883 1275297792
-0.3865501 0.36541834 0.41208193 1275297792
-0.37255362 0.36484492 0.41048563 1275297792
-0.36372489 0.3641308 0.40946412 1275297792
-0.41315487 0.36479142 0.40522408 1275297792
-0.40155384 0.36490491 0.40516657 1275297792
-0.39222091 0.36481658 0.4053134 1275297792
-0.38226575 0.36519685 0.40647185 1275297792
-0.37255377 0.36481994 0.4051857 1275297792
-0.3638064 0.36440164 0.40398848 1275297792
-0.41195473 0.36481452 0.41784817 1275297792
-0.40239379 0.36392963 0.41778129 1275297792
-0.39244679 0.36427793 0.41858479 1275297792
-0.38210592 0.36536819 0.41742447 1275297792
-0.37188417 0.36525691 0.41766924 1275297792
-0.36218265 0.36421382 0.41774526 1275297792
-0.34856582 0.36295149 0.36993802 1266679807
-0.34506398 0.36321545 0.37089577 1275297792
-0.33231616 0.36284214 0.36993802 1275297792
-0.30206493 0.36292613 0.37089577 1275297792
-0.35256267 0.36343512 0.36527649 1275297792
-0.34211886 0.36330095 0.36506367 1275297792
-0.33281329 0.36327553 0.36484948 1275297792
-0.32272813 0.36351117 0.3657155 1275297792
-0.3123776 0.36377826 0.36591491 1275297792
-0.30205765 0.3640129 0.36557278 1275297792
-0.35298064 0.36323783 0.3762995 1275297792
-0.34213698 0.36297798 0.37662911 1275297792
-0.33374718 0.3629663 0.37664276 1275297792
-0.32292396 0.36367708 0.3764075 1275297792
-0.311939 0.36310142 0.37647507 1275297792
-0.30279687 0.36275539 0.37673122 1275297792
-0.3175562 0.36427569 0.371566 1275297792
-0.31555432 0.36454979 0.37252378 1275297792
-0.35256019 0.36380115 0.38697648 1275297792
-0.3430607 0.36369368 0.38714045 1275297792
-0.33216166 0.36351505 0.3874853 1275297792
-0.32189503 0.36347756 0.38590962 1275297792
-0.31278324 0.36354432 0.38778535 1275297792
-0.30211017 0.36296439 0.3868306 1275297792
-0.35200238 0.3641293 0.3969698 1275297792
-0.34193328 0.3640497 0.39765489 1275297792
-0.33327353 0.36388019 0.39722216 1275297792
-0.32278872 0.36402869 0.39791363 1275297792
-0.3119916 0.36324432 0.39707175 1275297792
-0.30346796 0.36382893 0.39758411 1275297792
-0.35255387 0.36473447 0.41143548 1275297792
-0.34388953 0.3643645 0.4095279 1275297792
-0.33276278 0.36335102 0.40987927 1275297792
-0.3228471 0.36352509 0.40968767 1275297792
-0.3115589 0.36385998 0.41135415 1275297792
-0.30170447 0.36342388 0.40982446 1275297792
-0.35169724 0.36466253 0.40537727 1275297792
-0.34188747 0.36466962 0.40595195 1275297792
-0.33388883 0.36443996 0.40478659 1275297792
-0.32389128 0.36403757 0.40540925 1275297792
-0.31389087 0.36406612 0.40572852 1275297792
-0.30215725 0.36406359 0.40459192 1275297792
-0.35256222 0.36350158 0.41847354 1275297792
-0.34255743 0.36417529 0.41831762 1275297792
-0.3331154 0.36378285 0.41826549 1275297792
-0.32156089 0.36358538 0.4181565 1275297792
-0.31256077 0.36358067 0.41805267 1275297792
-0.30229044 0.36318928 0.41761148 1275297792
-0.28956524 0.36284202 0.37089577 1266679807
-0.2609005 0.36245745 0.37025729 1275297792
-0.24356624 0.36253253 0.37089577 1275297792
-0.29233962 0.36334938 0.36634067 1275297792
-0.28281203 0.36329845 0.36561161 1275297792
-0.27197409 0.36394402 0.36626604 1275297792
-0.26128826 0.36337334 0.36507899 1275297792
-0.25247541 0.36367717 0.3663938 1275297792
-0.24301744 0.36303282 0.36561888 1275297792
-0.2923961 0.36321339 0.37670648 1275297792
-0.28231102 0.36344084 0.37653083 1275297792
-0.27199236 0.36299878 0.37752527 1275297792
-0.26156846 0.36226282 0.37623358 1275297792
-0.25289536 0.36319503 0.37637126 1275297792
-0.24285027 0.362782 0.37671113 1275297792
